# .PCD v0.7 - Point Cloud Data file format
VERSION 0.7
FIELDS x y z
SIZE 4 4 4
TYPE F F F
COUNT 1 1 1
WIDTH 1445
HEIGHT 1
VIEWPOINT 0 0 0 1 0 0 0
POINTS 1445
DATA ascii
0.0231135 -0.0161842 0.062233701
-0.032510102 -0.0083253002 0.065071903
-0.033142399 -0.0149138 0.207257
-0.066377401 0.0087563898 0.000671605
-0.0081970897 0.031938601 0.040882502
0.0281089 -0.0081212996 0.13474
0.028241601 -0.0085104201 0.17870601
-0.039884001 -0.0373068 0.025846601
0.0060533499 0.0283169 0.18223301
0.0129237 -0.0299263 0.216823
0.0126201 0.034652699 0.191985
0.036248401 0.00116501 0.049443699
-0.072999999 0.0153334 0.012112
0.030254001 0.0105 0.22431201
-0.058351301 0.037332501 0.0190909
0.034874499 0.000951297 0.241
0.037464499 -0.0069882199 0.024
-0.0079500005 0.00200549 0.26937601
-0.036695801 0.0284342 0
0.032354999 0.023933601 0.0398391
-0.029616101 -0.028795401 0
0.0133531 -0.024467699 0.171011
-0.029416 -0.0014956699 0.157656
-0.022191299 -0.0035942399 0.258019
0.00026646699 0.0273281 0.15914901
-0.029287601 0.0028386901 0.111738
-0.023375601 -0.030999999 0.0417598
0.024013 -0.028671701 0.199654
-0.0170928 -0.021907501 0.122338
-0.029226299 -0.0035323901 0.097352497
-0.0133712 -0.033500001 0.037486501
-0.0126591 0.024527 0.14597601
-0.0114418 -0.019474801 0.078161001
-0.0172674 0.035999998 0.018967601
0.031954501 0.00798498 0.240996
-0.0077039502 0.0182578 0.266
0.023078799 -0.0155006 0
0.019174401 -0.0107003 0.232926
0.0162332 -0.0155568 0.246907
-0.021497101 -0.037999999 0.0024602001
0.0025091299 -0.021630799 0.23479301
-0.0086666699 0.0255441 0.055796199
0.033721901 0.0056519699 0.050715201
0.0104598 -0.031292699 0.215399
0.00378441 -0.030999999 0.043363899
-0.023042301 0.0200828 0
-0.02275 -0.017407401 0.17159601
0.021640301 0.0179187 0.086641602
0.0103053 0.037999999 0.0222244
0.020723799 -0.019414701 0.167781
0.0081997402 0.0251729 0.070862196
0.0339849 -0.0149885 0.204344
0.0157276 -0.032450601 0.033254799
0.0293734 0.00192797 0.14007799
0.037298299 0.00272144 0.024
0.044 0.00358298 0.0146995
-0.0070600701 -0.021306699 0.264411
-0.0147518 -0.0229776 0.098641202
-0.047825199 0.0116369 0.0470386
0.0275182 0.0158772 0.051728699
0.022457501 -0.00060389598 0.26068899
0.0134997 0.0178924 0.240676
-0.0108147 0.024749 0.101856
-0.0184501 -0.0128631 0.26320001
-0.063747898 0.032443698 0.0039471802
0.041871499 -0.0043722098 0.0060000001
0.0293565 0.0022007299 0.088706903
0.0233698 -0.019195201 0.052441899
-0.032697499 -0.00568598 0.216618
-0.0310078 0.0179224 0.076967902
-0.018371001 -0.0210266 0.120235
-0.000467215 -0.026208701 0.22499999
-0.0149332 -0.023020299 0.108214
0.00191844 0.0139657 0
0.039517999 -0.0063999998 0.031256601
-0.039395198 0.021028001 0.050000001
-0.057583299 -0.024907 0
-0.028779199 0.017139399 0.186884
-0.0160223 -0.035999998 0.0104745
0.0327488 0.0116456 0.21324299
-0.0216313 0.0060302098 0.250723
-0.029133899 -0.0087516904 0.090501502
-0.0134426 0.025038199 0.179178
0.037512101 0.0038874601 0.192476
-0.026308101 -0.029999999 0.033061799
-0.0212944 -0.0071424898 0.25822699
-0.030933701 0.0086884201 0.21854
-0.050141901 -0.035999998 0.0133459
0.030992599 -0.018480901 0.188852
-0.0118774 -0.0210505 0.242
0.00826451 0.035999998 0.0193728
0.013403 0.0144231 0
-0.0256432 0.0130899 0.105338
0.0092682699 -0.027970901 0
0.017010599 -0.021401601 0.069797002
-0.0187859 0.020870199 0.13827799
0.0293408 -0.00220238 0.13631099
0.037907999 -0.0225637 0.019071201
0.0061891102 -0.029999999 0.032950401
-0.0189259 0.020407001 0.106516
0.0149453 -0.030119499 0.0275
0.042506199 -0.0104201 0.0339485
-0.025255799 -0.027523 0.19809499
0.0116433 -0.0192382 0.25935701
0.0120667 0.0343064 0.189475
-0.072999999 -0.0092525296 0.0102923
-0.018361401 -0.021330999 0.15004499
-0.024767101 -0.0185424 0.082663797
-0.013596 -0.0200604 0
-0.028515499 0.0067006 0.094872698
-0.032723799 0.0062750499 0.075091898
-0.0284531 0.019817101 0.187804
0.0291324 0.0054763998 0.241
0.022468099 -0.000453696 0.25768101
0.0075342702 0.027250599 0.1796
0.0159842 0.0219304 0.062762298
0.018869201 0.0211231 0.17193
-0.032649402 -0.0157873 0.053927202
-0.032961398 -0.0019664599 0.074207596
0.0260817 -0.025664 0.19011199
-0.00076278398 -0.024807099 0.237433
0.0063894 -0.025957299 0.098172702
0.0036702501 -0.026131099 0.082841001
-0.028550001 -0.00653827 0.100901
-0.020945599 0.0186834 0.094051003
0.0181586 0.029999999 0.028250201
-0.040778801 -0.0117959 0.050000001
-0.00749519 -0.033619098 0.187797
-0.016950101 -0.018369701 0.241217
-0.015725801 0.037999999 0.023145
-1.17808e-05 -0.030999999 0.043477599
0.00157682 -0.024613099 0.23951399
0.0020140901 0.036739599 0.19204199
-0.0132417 0.020002199 0.216095
0.038720001 0.0091595696 0.041469801
0.0369206 0.0085337004 0.23936
0.0388184 0.0033444101 0.232044
-0.020679699 0.019375799 0.150022
0.0247644 0.0269982 0
0.0042180899 0.0043607601 0
-0.013296 0.036781799 0.194865
0.022977401 -0.036173198 0.0264134
0.0081150504 -0.025642499 0.10525
0.0115585 -0.027161799 0.051833998
0.0278513 0.0089707896 0.173761
-0.034417 0.0088573201 0
-0.02232 0.0173037 0.099746399
0.038906101 0.00079666998 0.225209
0.036095101 -0.0113129 0.19465099
0.0012514 -0.023194401 0
0.028266899 0.0075985501 0.120087
-0.0423664 -0.035999998 0.00784849
0.026612001 -0.035999998 0.0098431902
-0.0329949 0.030999999 0.039792199
-0.00221649 0.033500001 0.0388867
0.00219839 0.0208307 0
0.0074690999 -0.038202401 0.193611
-0.0083070099 -0.0258184 0.124457
0.022394801 -0.0014945701 0.255171
-0.0403083 -0.00889285 0.050000001
0.0107778 0.025366399 0.15172
-0.0134763 -0.037999999 0.0022066401
-0.027167199 -0.0136022 0
-0.00296841 0.0087565295 0
-0.0159583 0.022767801 0.13854
0.0110467 0.031941101 0.213807
0.024352901 0.0203318 0.219225
-0.037880499 -0.00184489 0.199146
0.0029830299 0.026289601 0.085522398
0.031853899 0.0116608 0.0506243
-0.028064899 0.029999999 0.032288302
0.0067573902 -0.0267535 0.169339
-0.025424 0.015843799 0.090203702
-0.0133753 -0.036754701 0.196456
-0.0433475 -0.034224901 0.0273875
-0.021686999 0.019177301 0.091097303
0.0033980601 0.036667801 0.00133389
-0.037221398 0.0271926 0.050000001
-0.0326306 0.0073251198 0.078428201
0.00837069 -0.0259798 0.138895
0.016073501 -0.015691301 0.25732499
-0.0113648 -0.032824099 0.033592101
-0.044128701 0.035999998 0.0125107
-0.0272641 0.037999999 0.00298488
-0.0171399 -0.014503 0.248776
-0.020530101 -0.0195041 0.16351201
-0.053248402 0.027981199 0
-0.0111071 -0.028082101 0.221717
-0.00177049 -0.0108753 0.266
0.0163358 0.0223433 0.117876
-0.031629801 0.0094394097 0.088155299
0.032905299 0.0300768 0.0248795
0.044 0.0099543296 0.0181257
0.038905699 0.0014045 0.22995999
-0.028426699 -0.0070414701 0.098305702
0.038595598 0.026264301 0.0158989
0.044 -0.0088854199 0.019535299
-0.0717742 0.00776642 0.0052728802
0.027494701 -0.0093727801 0.0604394
-0.0311643 0.000247638 0
0.0130579 -0.0244173 0.153409
-0.0132516 -0.0071698199 0
0.0060871099 -0.026073899 0.102257
0.024591099 -0.0147258 0.106659
0.0368293 0.00334669 0.240702
0.0148412 0.029999999 0.02899
0.014565 -0.0164649 0.22666501
-0.054364499 0.0138945 0
-0.0355375 -0.037857398 0.021714799
-0.0115751 -0.024955999 0.143939
-0.0227063 -0.0245224 0.215159
0.0128405 0.021294599 0.241965
-0.0141238 -0.034303699 0.194745
-5.9143599e-06 -0.0224021 0.239144
-0.032209702 0.0113319 0.057935901
-0.0036513 0.035999998 0.0083483802
-0.031594899 0.0148424 0.065144897
-0.0416677 0.029999999 0.0325955
-0.035579 -0.030999999 0.044444699
0.035314899 -0.018072801 0.0046380898
-0.042801999 -0.035999998 0.0114033
-0.0183478 0.027542699 0.186891
-0.023616301 -0.025327999 0.21176299
-0.063412502 0.031233801 0.023869099
-0.034876 -0.0109766 0.189657
-4.5205201e-05 0.033116601 0.215388
-0.0079586999 -0.025335999 0.061619699
0.0243675 0.028350299 0.199818
0.0045092599 -0.022019301 0.25778499
-0.0052536698 -0.027062999 0.17222001
-0.039167799 0.029999999 0.039252002
-0.0179954 0.0099843601 0.266
-0.0059249401 -0.029999999 0.031854998
-0.036770102 0.0022745701 0.190382
-0.028849199 -0.0056254701 0.166867
-0.067101099 -0.0307138 0.0088971201
0.018362699 0.021142101 0.13129599
-0.0109627 -0.025107499 0.135021
-0.0062446399 -0.018089401 0.266
-0.0285317 0.0066873101 0.168035
0.0273067 0.0098930402 0.078489996
-0.026381001 -0.000394362 0
0.0033062401 -0.035999998 0.0099453405
0.037594799 0.00096054701 0.212501
-0.0308828 -0.0293379 0.049711902
-0.0576998 0.018648701 0.0390682
-0.042977501 -0.036559101 0.0262204
-0.063795999 -0.037999999 0.00775983
0.0260632 -0.0126728 0.056716401
-0.0027328001 0.0263617 0.087990902
0.027569201 -0.00075009 0.241
-0.0154069 0.0162962 0.24377701
-0.071443401 0.0044749202 0.0244815
-0.0234493 0.0232361 0.075022101
0.041357901 0.019177999 0.0222857
-0.0263345 0.0051807198 0
0.0265867 -0.0117083 0.136701
-0.070207998 -0.0124943 0.026183899
-0.0156157 0.032902401 0.204301
0.0168378 0.0126296 0
-0.0354998 -0.0058363401 0.209034
-0.024197601 1.84206e-05 0.233832
-0.072468601 -0.0201906 0.0221543
0.0367199 0.016590299 0.0060898401
-0.0140921 -0.023761701 0.138576
0.0197917 -0.024573499 0.18525
-0.063386597 -0.0319294 0.023883499
0.00419176 -0.0034727601 0
0.0117118 0.0241524 0.077389702
-0.00019212899 0.00060059398 0
0.029116301 0.00436165 0.14866
0.030467199 0.0054714102 0.053459398
0.0062029399 -0.036296502 0.192148
0.0223132 -0.00265425 0.25062701
-0.0063492502 0.026759099 0.164112
0.0199626 0.0201985 0.174969
-0.032351099 -0.019109599 0.192627
0.020473201 -0.0195622 0.16078
0.0145844 0.034116101 0.196348
-0.0096373903 -0.025146199 0.066132501
0.027957199 0.0107334 0.054418799
0.0152975 0.0155946 0.230571
0.0063718501 -0.027124001 0.22499999
0.040600099 0.0127389 0.0060000001
0.021828501 0.0292108 0.189418
-0.0293492 0.035999998 0.0126694
-0.00155062 0.0260386 0.058968902
-0.0195064 -0.0291887 0.20986301
0.0248363 -0.014112 0.072709002
0.0083961999 -0.026067 0.147488
0.00125308 0.022381 0.249093
0.0165087 -0.0225362 0.149932
0.027372099 0.031693399 0.000342568
-0.0042960299 -0.037999999 0.022397701
-0.020655399 -0.0189873 0.114158
-0.0035322299 -0.032121599 0.216804
0.0214148 -0.0180663 0.079979703
-0.0043192902 0.0233499 0.21963599
-0.068200298 -0.0189521 0.00150877
0.0043856101 0.0212269 0.226267
-0.027731201 0.0221585 0.078599602
0.036523301 0.0230889 0.021488
-0.0127887 -0.037999999 0.024808099
-0.047773499 -0.037999999 0.025097299
-0.032855 0.0029655099 0.061399601
-0.020181401 -0.0249648 0.18610901
0.035891101 -0.0145624 0.033440601
-0.0227929 0.016929699 0.114044
-0.072551303 0.0029734599 0.0078901704
0.00648718 -0.033435602 0.212611
0.0193958 0.031761698 0.200684
0.037975501 -0.0085560298 0.224016
0.016911101 -0.01151 0
0.0231287 0.016834499 0.15223899
0.0033843699 0.035999998 0.0102182
-0.020981399 -0.0189094 0.141104
-0.0285127 -0.035999998 0.019876899
0.0059821601 -0.030999999 0.046149399
0.021321099 0.0070489198 0.258261
0.034658201 -0.011619 0.189704
0.033654399 -0.0097684897 0.239096
-0.0210921 0.0188438 0.13413399
0.038945802 0.023156401 0.0136174
0.0191302 0.0032728801 0.26401499
-0.0207425 0.0085933097 0.25252199
0.023942901 -0.0155478 0.110916
-0.031125801 0.0126463 0.087797299
-0.0131474 0.018192001 0.264294
0.042870302 -0.00096487801 0.023766801
0.0090909898 -0.0231061 0.22499999
0.0046402002 -0.026450399 0.114187
0.020843999 -0.0188262 0.112578
0.022392601 -0.025949599 0.212787
-0.028265299 -0.0076492201 0.16090401
-0.0121526 -0.0290119 0.219336
0.008537 0.026325401 0.176263
0.0053458898 0.0314187 0
0.0332672 -0.0171865 0.20241
-0.023984401 0.022683 0.216306
-0.034226 0.0120085 0.189016
0.035393201 -0.017278001 0.042969499
-0.0678792 -0.031126199 0.0145608
0.0091987196 0.025825299 0.147374
-0.0059712399 -0.0259309 0.086151801
-0.00187612 -0.017623 0.266
-0.0230418 0.0168403 0.135067
0.0067131701 -0.0237833 0
-0.0253138 0.0308435 0.0275
-0.026076499 -0.012536 0.093560599
0.031385198 -0.0105 0.225703
-0.0250852 -0.014262 0.15693299
-0.0248944 0.0230908 0.080356799
0.0275265 0.0266826 0.000367492
0.034798201 0.0027025 0.037859902
-0.060476098 -0.037590001 0.0177074
-0.0052181501 0.0269724 0.166587
-0.0083423397 0.0359204 0.192001
0.0047867498 -0.018836999 0.266
-0.00301367 -0.024674401 0.23947699
-0.0133895 0.020707199 0.240953
-0.0227398 -0.0149774 0
-0.0131732 0.029743901 0
-0.033856999 0.035999998 0.0114756
0.032659199 0.017255301 0.190605
-0.0133265 0.036128402 0.0010642
-0.0720056 -0.0242837 0.0216446
0.00037828501 -0.035651699 0.026674099
0.0147151 -0.0228687 0.0885472
-0.064556003 -0.033245601 0.00483103
-0.0289439 0.0135419 0.218844
-0.051661201 0.029999999 0.027506599
-0.0079500005 0.00373335 0.26353401
-0.0315383 0.0152405 0.079244398
0.024432 0.0148004 0.084941603
-0.022225101 0.00264653 0.24198399
0.029428501 -0.00103559 0.15521
0.040980399 0.0108491 0.035695799
0.0159197 -0.0148091 0.229876
-0.0208115 -0.0083947703 0.261159
-0.017810499 0.0136877 0.25521001
-0.016134201 -0.0187493 0.068917997
-0.032972001 -0.00194736 0.081354097
0.022109499 -0.0178745 0.055750798
0.025868399 -0.0105 0.235091
-0.0050388002 -0.0261597 0.093567498
-0.0042496598 -0.0166323 0
-0.067429103 -0.0194223 0.0292826
0.044 -0.0113336 0.0160603
0.0064217001 -0.0172552 0
0.0158413 0.0019626301 0
-0.063749596 -0.037999999 0.015881199
0.00264447 0.031667899 0.218537
0.0293395 0.00230192 0.128198
-0.062638499 -0.0066269501 0
-0.022961101 0.017385701 0.17762101
0.0223657 0.00190755 0.25909099
0.0109191 -0.035155799 0.20190901
-0.052310999 -0.029999999 0.0275732
-0.017530801 -0.0140279 0.24027701
0.0275065 0.0096854698 0.15259799
0.018015601 -0.0320572 0.19086
-0.0680492 0.0106322 0.00145091
0.0229115 -0.0169781 0.13549399
0.0291899 -0.00876013 0.240594
-0.0291386 -0.0039932001 0.14998899
-0.0202356 0.0192702 0.100087
-0.040331502 -0.030621 0.0275
-0.021872399 0.037083801 0.00733242
-0.031744201 0.0148715 0.21153501
0.027773401 -0.0186859 0.21573301
0.035204001 -0.0249088 0.023217199
0.0153759 0.022300299 0.057953101
0.0182644 0.023085499 0.22318301
0.0231089 0.035999998 0.0142091
0.0128753 0.0271431 0.051566899
0.025106899 -0.029253799 0.034545001
0.0160711 0.035999998 0.015701899
0.0032987399 -0.025924399 0.069248997
0.035952099 0.0132095 0.0053092199
-0.0088762399 0.0261114 0.164949
-0.00310923 -0.033500001 0.038377501
-0.032362599 -0.036387101 0.0074999998
0.0013199 -0.038869299 0.199238
-0.071326002 0.017826499 0.00454767
-0.072016098 -0.0255206 0.0083522899
-0.0130766 -0.035999998 0.0121913
0.0078398101 -0.0264428 0.166118
-0.0128829 0.0240517 0.109995
0.0173229 0.035999998 0.0123338
0.033046301 -0.037999999 0.018226201
0.00771234 -0.0182081 0.266
-0.050175201 0.0130699 0.045308299
-0.0153573 0.0214947 0.22499999
0.042213399 0.00133092 0.0371699
-0.0485298 -0.0298886 0.041593499
0.030113401 -0.0250862 0.00097776297
0.00160375 0.038962498 0.19970401
0.0244013 -0.0105 0.237413
0.0093297204 -0.0247733 0.061432701
-0.024648501 -0.030999999 0.044436399
-0.0081315199 -0.026122499 0.14792
0.0100021 -0.025503799 0.14136
0.0289161 0.0051535098 0.118269
0.0107359 0.0254665 0.158995
-0.0015429 0.00282391 0
-0.072912298 0.014177 0.0199655
0.0055229301 0.026197501 0.104523
-0.0404469 0.0113845 0
-0.0188413 0.031630602 0.202619
0.026319001 0.037999999 0.024776001
0.0192644 0.0116244 0.25758401
0.00835591 0.035144001 0.205384
-0.000813213 0.0277272 0.0525048
-0.063075401 -0.0291091 0.0299899
0.0256433 0.0302078 0.027422201
-0.024659 -0.0027376499 0.239461
0.035184201 0.0210509 0.0456478
0.044 -0.0155178 0.017624799
-0.031744801 -0.0143364 0.084754802
-0.0154366 0.016309099 0.25488499
0.0143342 0.033293199 0.205183
0.031436902 0.0181966 0.20740101
-0.0253086 -0.0136102 0.109845
0.022755699 -0.0140032 0.22499999
-0.0089258803 0.0197854 0.231103
-0.0238089 -0.036591701 0.00129583
0.036768202 0.0090710605 0.200776
0.0201723 -0.027150201 0
-0.072999999 0.0119119 0.0139363
-0.031920701 0.0099819005 0.18671601
0.021238901 -0.0188361 0.156964
-0.0245388 0.0193676 0.068102702
-0.037499301 -0.0154058 0
-0.0171989 0.0241445 0.074561402
-0.062410299 0.029999999 0.00262686
-0.00352037 -0.035999998 0.017332001
0.0083255898 -0.037944201 0.021888399
0.0345985 0.0110485 0.189051
-0.0030412299 -0.035999998 0.0132491
-0.0213611 -0.0272044 0
0.035879798 -0.0139063 0.0052331001
-0.0141488 -0.020211199 0.239654
-0.0366203 0.0170276 0.050436702
-0.059705898 0.0155 0.035660401
0.0103835 0.035999998 0.0117894
-0.010694 -0.0250709 0.122265
-0.027220801 -0.036405701 0.0074999998
-0.00241821 -0.0379976 0.0055048801
0.0290995 0.0044000298 0.125787
0.0080752503 -0.035546198 0.188971
-0.036309499 0.0073106498 0.19068199
0.0074359099 -0.0262622 0.141691
0.024398601 -0.0149036 0.093319103
-0.0055753202 -0.0211231 0.226015
0.0383288 0.021890501 0.017115399
-0.0151663 0.035999998 0.0120195
0.0048207198 -0.037898701 0.021797299
0.026948299 -0.0108824 0.110413
0.033139899 -0.0180101 0.19851901
0.038519599 -0.0315549 0.0104925
0.030953901 -0.0255867 0.033983801
0.034656499 -0.019492401 0.0364094
-0.027459599 0.037999999 0.0224992
-0.0221771 0.0180381 0.080692999
0.0133484 -0.021565501 0.22499999
0.0379273 -0.0352965 0.0159817
0.0380041 -0.0044426401 0.0060000001
-0.032471199 -0.0088837501 0.076899
-0.031686101 0.0084705101 0
-0.0040316298 0.0220591 0.25895101
0.022620101 -0.027080899 0.050018799
0.0221968 0.0373565 0.020712901
0.00351445 -0.0295102 0.22251301
0.00183999 -0.031270999 0.041000001
-0.00936535 -0.025315501 0.076566003
0.020040801 -0.037817501 0.0058649099
-0.041308202 0.00156729 0.050000001
-0.0105523 -0.0249689 0.062618397
-0.0094519705 0.025271101 0.093179502
-0.062228698 0.0264061 0
0.014028 -0.0343008 0.19611301
-0.0256161 0.037892502 0.0057149702
-0.0121227 -0.020572601 0.067867301
-0.0296093 -0.0056349202 0.181337
0.010952 0.019509099 0.245924
-0.0045286901 -0.02644 0.112113
-0.019648099 -0.0058895899 0
-0.018813999 -0.0204644 0.103394
-0.030404201 0.021909 0
-0.0138242 -0.034437399 0.197666
-0.0215785 -0.0113091 0.242
-0.050204601 -0.0273034 0
-0.0294194 -0.0014561201 0.160254
0.0263198 0.0122619 0.149828
0.031666599 -0.020359199 0.197965
-0.034646198 -0.0184616 0
0.026115401 0.0122549 0.081810102
-0.0081863897 0.032741498 0.187383
-0.0294798 0.00025458401 0.107001
-0.0042065801 -0.030999999 0.047440302
0.016036401 -0.0226095 0.126939
0.0152176 -0.0227476 0.098613203
0.0035596199 -0.0258606 0.0603256
0.041168101 -0.0188848 0.0072409101
0.0093664099 -0.025570501 0.129989
0.034989499 0.0084669702 0.209803
-0.027372999 0.0092192804 0
0.0258958 0.012664 0.095909201
0.0028502599 0.0245075 0.23778
0.029391101 0.00169436 0.15993001
-0.0442756 -0.025583001 0.048480399
-0.0291717 0.0035389101 0.101507
-0.057584599 0.0268043 0.037164301
-0.0199965 0.020203101 0.17189901
-0.019751901 -0.021816701 0.223277
0.00458743 0.0249057 0
-0.019013301 -0.0209889 0.170471
-0.0216297 0.018324999 0.136896
-0.0253489 -0.036930699 0.02
-0.0329642 0.0022638 0.0819268
-0.0193804 -0.031697899 0.20122001
-0.0169408 -0.0218422 0.106736
-0.0078629004 -0.00464029 0.261967
0.0209946 -0.0188787 0.13559499
0.035670102 -0.0161373 0.030780399
-0.0221754 0.0178816 0.152353
-0.036182601 0.035999998 0.0091512799
-0.059682999 -0.035999998 0.0144678
0.0067889499 -0.025539899 0.0699635
0.016637599 0.021980099 0.100869
0.00276012 -0.0311375 0
-0.021659501 0.0303654 0.200389
-0.0110762 0.0374537 0.19343901
0.0198735 0.0195335 0.094949998
-0.0304635 -0.00333622 0.090516701
0.023470299 0.028272299 0.0498542
-0.024506601 -0.0150159 0.134207
-0.0260891 0.035999998 0.0130788
0.00110321 0.026152 0.066662803
0.037 0.0110231 0.0470911
0.0068707601 -0.0213587 0.26427999
0.038157102 -0.00461462 0.038215201
-0.013432 0.023781501 0.107187
-0.018627699 0.0292896 0.050295301
-0.0114917 0.0224309 0.06763
0.0238549 0.016070999 0.163424
0.0079500005 0.00234031 0.26969099
0.0165757 0.0305488 0.21067899
0.0011558899 -0.0224298 0.25829101
0.0211349 -0.018547 0.109468
0.00166598 -0.0110719 0
-0.0228994 0.016778501 0.108839
0.0135858 -0.0178902 0.26149899
-0.0223809 -0.0015792201 0.260885
-0.0180199 0.029999999 0.032283001
-0.018025801 -0.0306703 0.207725
0.00580208 -0.016406501 0.266
-0.0028437299 -0.021487299 0.22981501
0.018504299 -0.020375401 0.065993197
-0.054841999 -0.0116149 0.041559901
0.0119576 0.0203912 0.22499999
-0.020823 -0.0083353799 0.244524
-0.041599698 -0.037999999 0.0022181999
-0.044830099 -0.0134846 0
0.038107201 0.030518901 0.018196899
-0.0166458 0.021229001 0
0.0110406 -0.034591999 0.189054
-0.0240483 0.0155409 0.12793399
0.027656199 -0.00929402 0.14127199
0.026935801 -0.0373252 0.0071958201
0.0218619 -0.0175039 0.058906201
-0.055521902 0.0011958299 0.040979698
-0.0079225702 0.0253032 0.058568001
-0.034678798 0.037184902 0.00713018
0.044 -0.0034552701 0.0111184
-0.0029565501 -0.0285461 0.181863
0.0226989 -0.0170167 0.10788
-0.016900999 -0.0136539 0.22790501
0.020043001 -0.0148398 0.238876
-0.040499602 0.018673901 0.050000001
-0.020944299 0.0079781702 0.24471
-0.00283149 -0.026401199 0.092197299
-0.0130083 0.0246315 0.064359799
-0.0268934 -0.020972099 0.21392
0.00989764 0.016928401 0
-0.00754645 0.0325468 0.214674
0.0170487 0.035916299 0.00095816801
0.0109491 -0.025116101 0.13443699
0.012105 -0.0189387 0.25534001
0.00145233 0.026099 0.063892499
0.040087901 -0.015899001 0.024
0.0099160997 0.019357 0.22978
-0.0145471 0.033852801 0.202125
-0.019357501 -0.037048001 0.025976
0.024904801 -0.0078245196 0
-0.034438498 -0.0092070801 0.20984299
-0.046225499 -0.037999999 0.0224992
0.0039651198 0.026871599 0.142139
-0.068767004 -0.0296223 0.022492301
-0.0052064401 0.037999999 0.0039975201
0.0030681801 0.0264921 0.102541
-0.072999999 -0.0060835499 0.0145169
0.027054099 0.0108006 0.16316099
-0.023715099 -0.015920499 0.119911
0.020912699 0.0303689 0
-0.020955 -0.00802828 0.25016099
-0.0481144 0.027137101 0.044891998
-0.0065714498 0.026203001 0.121175
0.037957702 -4.4742799e-05 0.024
0.0262307 0.0145615 0.182145
-0.0056040301 -0.0344708 0.209361
0.029145099 -0.00409564 0.106687
-0.0241119 0.00257161 0.22499999
-0.0034098099 0.024574099 0.24190401
0.0116207 -0.0245487 0.055380199
0.0422755 0.00425797 0.037107799
-0.055846199 -0.035999998 0.0127476
-0.035994001 0.0117237 0.195746
0.024369599 -0.0180925 0.22168399
0.0049557001 0.0346983 0.00034916101
-0.000295904 0.026455799 0.086333297
0.027542399 -0.0094357301 0.104385
0.026101399 0.0126472 0.15686201
-0.072571002 -0.0229907 0.0073902998
0.0117747 -0.037999999 0.00302841
-0.000258485 -0.0224465 0.255806
-0.072646402 -0.023285801 0.0125079
0.021810301 0.0188432 0.17819799
-0.0235523 -0.00496411 0.22634301
0.031626798 -0.037277799 0.0154425
0.022880301 0.0172552 0.16981
-0.0171983 -0.0325501 0.20243999
0.038302701 -0.00704548 0.21798401
0.016599899 0.028228801 0.216506
-0.00386612 -0.0220361 0.23984
-0.00649615 -0.035999998 0.015726
0.035862301 -0.0120704 0.197736
0.024808301 0.0141172 0.0665714
-0.0087420298 -0.034521502 0.20704
-0.0049875798 -0.032106198 0.186684
-0.057 -0.0051647499 0.0362694
0.0167928 -0.0291197 0.187233
-0.028074101 0.0187396 0
0.0116321 -0.018289501 0.228411
0.016244501 -0.022576099 0.135957
0.020785199 0.0309486 0.195142
-0.021072701 -0.033500001 0.0368485
-0.0079500005 0.00376635 0.26668999
0.035741702 -0.0156269 0.037103001
0.0277336 0.037999999 0.0028728
-0.0213346 0.0067360401 0.23912901
0.0197106 0.028968001 0.210372
0.041847002 -0.02 0.0100802
-0.052351099 -0.037999999 0.025384201
-0.037062999 0.032286 0
-0.029085301 -0.0042805299 0.117957
-0.037680499 0.0044898302 0.196867
0.043373 0.0191938 0.020616701
0.017558601 -0.0140395 0
0.029265201 0.0029217801 0.16745999
-0.0162064 -0.0222272 0.103118
0.022667499 0.0171289 0.119589
-0.0246611 0.0146727 0.120168
0.0109019 0.0244013 0.074282102
-0.0175218 0.028459299 0.21493401
0.0088685602 -0.0253375 0.095532201
-0.0128949 0.021327799 0
0.0034608999 -0.022077801 0.26533401
-0.0213081 -0.0183111 0.101283
0.027365699 -0.0097474698 0.075580299
-0.0030304799 0.0235439 0.22498199
-0.017074 0.0220268 0.13401701
0.027494101 0.023824699 0.18916801
0.0165221 -0.012 0.25202301
-0.047748499 0.035999998 0.017116901
-0.0132985 0.018033899 0.247435
-0.00070506602 -0.022454601 0.249825
0.026852701 -0.0113731 0.167574
-0.041753601 0.035999998 0.015988801
0.037 -0.00123263 0.047357
-0.0309949 -0.0049923402 0
0.0059396401 -0.0225999 0.22499999
-0.035594098 0.0128714 0.199012
0.0078895101 0.026001699 0.131722
0.0177077 -0.035999998 0.0077379998
-0.0617931 -0.026984001 0.032983098
0.042711999 -0.016492801 0.023677099
-0.0116758 -0.018363999 0.22961099
0.00063152798 -0.0219508 0.23271599
-0.038572598 0.0036239 0
0.0371112 -0.0141335 0.024
-0.016479 9.8910903e-05 0
0.038443599 0.033412199 0.016616
0.0023073 0.027336501 0.16655999
0.0385161 0.028578799 0.0104194
-0.0246186 0.0149977 0.16162799
0.017448099 -0.0128795 0.232133
-0.0547182 -0.037489299 0.0208549
0.033156801 0.022610299 0.029422499
0.0214855 -0.017898999 0
-0.0166311 0.0052283802 0
0.018602099 -0.020249801 0.22499999
0.037028398 -0.0098447399 0.221927
-0.000194925 0.026660999 0.10513
-0.044594798 0.0230776 0.0490385
-0.0061903601 0.026332701 0.124843
-0.065746203 -0.029999999 0.0061062202
0.0209393 -0.0133692 0.236746
-0.0132436 0.0240638 0.12742899
-0.0093983198 0.0195412 0.234988
0.018153699 0.037884999 0.02177
-0.019316999 0.0042125098 0.266
-0.016692 -0.037999999 0.023114501
-0.064768203 -0.037999999 0.0124412
0.022495599 -0.017519901 0.138615
-0.00381389 -0.035999998 0.0090832198
0.0190164 -0.019998301 0.068601303
0.038143799 -0.0036530199 0.238864
0.036146399 -0.032385301 0.021748999
0.020564999 -0.035999998 0.0187329
0.0230077 -0.0164859 0.089219198
-0.0562938 -0.0095252404 0.040309299
0.0359862 0.0255845 0.022206699
0.0221249 0.010799 0.22499999
0.0161181 0.0316117 0.20826299
-0.025457 0.0133896 0.102378
-0.066059299 -0.029999999 0.023861701
-0.0161989 0.032588702 0.18897399
-0.045175601 0.0169816 0
-0.0094120903 -0.025471499 0.089684702
-0.032497901 -0.031898901 0.0275
0.0056580701 0.031284999 0.18618999
0.035296202 -0.0342017 0.00475372
-0.0104073 0.0226554 0.24021401
-0.0117037 0.019372299 0.081705503
0.0079568196 0.025366399 0.082986496
-0.017875699 0.023890199 0.062039401
-0.0094422298 0.0258513 0.157144
0.02489 0.0139796 0.0636767
0.0102514 0.0127587 0
0.0294959 -0.00013771 0.063356698
0.00745482 -0.038204901 0.198588
0.00327858 -0.0262521 0.088086799
-0.030963801 -0.0088468697 0.218393
0.028764199 0.0088038398 0.240545
0.024614001 -0.0148966 0.13433599
0.0282303 0.0077676899 0.1309
-0.043462198 0.029999999 0.035060201
-0.0350486 0.035999998 0.0148404
0.035479799 0.029573301 0.022835899
0.0087037496 0.020617699 0
-0.0241614 0.00029606101 0.22689299
0.0289858 -0.030877 0.0268918
-0.061915901 0.037999999 0.0183021
-0.0233109 0.035999998 0.016788401
0.0222123 -0.021261901 0.22111601
0.0047555198 -0.0060920999 0
0.0068982001 -0.025788 0.093644097
0.0249271 -0.0146287 0.165989
-0.0020068099 -0.0264946 0.096407801
-0.0226781 0.0171399 0.125577
-0.0146304 0.019719301 0.235
-0.037198599 -0.0075369398 0.20021801
0.021513 0.018113101 0.097170897
-0.0075171799 -0.0262457 0.144309
-0.0224823 0.000234825 0.26307499
-0.052149698 -0.0183453 0
0.032827899 -0.018563701 0.193755
0.0291207 0.0043027699 0.136435
0.036967698 -0.0080035701 0.046785802
0.0029601201 -0.029999999 0.0315594
-0.0130282 -0.030827601 0.048736699
-0.050576799 -0.0018554199 0
-0.0115132 -0.03033 0.186591
-0.0093173701 -0.026211999 0
-0.0303232 -0.037999999 0.025385899
-0.055225998 0.0163943 0.041240402
0.018792899 -0.028932801 0.21187501
-0.033202 0.021279801 0
0.0077628498 -0.021075999 0.26089999
0.016259599 0.023966201 0.180985
0.0256992 -0.00827209 0.240944
-0.0647991 -0.018395901 0.00035775901
0.0121626 -0.0090441201 0.266
-0.037590299 -0.029999999 0.042745899
-0.0215257 0.035999998 0.0194731
0.031818599 0.0246155 0.037192799
-0.022183301 0.0113272 0.239208
-0.0289224 -0.0051458501 0.14490899
-0.037194099 -0.028062301 0
0.021939401 -0.018003801 0.129493
-0.0619407 -0.0348376 0.0029178399
0.019016 0.035999998 0.0152291
-0.0236878 0.028722599 0.201627
-0.034575 0.0137058 0.203824
-0.031516202 -0.017666399 0
0.033895802 -0.021320401 0.0323941
-0.00068062003 -0.0331738 0.0275
0.0170727 0.0037335299 0.266
-0.00054404303 0.020539399 0
0.019677 0.0195788 0.0833157
0.000226295 -0.0151598 0.266
-0.0231739 -0.016376499 0.101127
0.0058819298 0.0176445 0.266
-0.012331 -0.030999999 0.044560902
0.029410901 0.0015373999 0.150015
-0.00133718 0.018389801 0.266
0.022132 0.029877501 0.19248199
-0.0404245 -0.0205836 0.050000001
-0.025013501 0.0290241 0.0501468
-0.031174799 0.017169001 0.063701898
-0.00312498 0.030999999 0.042388801
-0.00156825 0.0262622 0.073937297
-0.062358402 -0.037999999 0.0207662
-0.041187301 0.033171099 0.0275
0.037635099 0.0045409398 0.195793
0.0288126 0.0371475 0.0084185703
-0.072808199 -0.0130606 0.0208269
-0.072517097 0.0040754499 0.022139199
0.0380527 0.024226099 0.018410301
-0.0216613 -0.0059383102 0.26323199
-0.0080222199 0.0256097 0.084438398
0.016321501 0.022459401 0.129003
-0.023458 0.0165208 0.14959501
-0.036078099 -0.0114867 0.19873001
0.039265599 -0.0106276 0.0060000001
0.0302749 0.0114327 0.18578801
-0.052857101 -0.037999999 0.0021687699
-0.0037082499 -0.030843001 0.21978199
0.0292158 -0.019096799 0.212172
-0.020431699 0.030999999 0.045787599
-0.0407684 -0.0036867601 0.050000001
0.026509 0.012102 0.056338299
-0.049042199 0.0145856 0
-0.0204798 0.0296333 0.20674799
0.031677201 -0.0184182 0.205935
0.036107901 0.0114417 0.197429
0.020142701 -0.019645 0.138271
-0.0090649799 0.0252076 0.064299896
0.0290852 -0.0044258698 0.102009
0.023936801 0.020213 0.051638201
0.0112237 0.0185435 0.232334
-0.040741902 -0.00097808405 0
0.00087881798 0.037999999 0.025492899
0.0044806702 0.0262364 0.095160097
0.0435213 -0.0192107 0.017914999
-0.057 0.0130723 0.035241
0.0281075 0.021362299 0.210206
0.037275199 -0.0096702399 0.230877
-0.046318501 -0.0124096 0.048133999
-0.053805001 0.037999999 0.0035780501
0.0273437 -0.0255896 0.19874699
-0.037340999 -0.0311826 0.0275
-0.034715101 0.030864 0
-0.0294671 0.000678599 0.104368
-0.014031 -0.037085298 0.0073293201
-0.071351498 0.016082499 0.024615301
0.016057899 -0.0336175 0.0275
-0.0290277 0.0079708798 0.181624
0.032043599 -0.0155453 0.209857
0.0058649099 0.027178399 0.177442
-0.023583001 0.035999998 0.0138988
-0.0061572799 0.033500001 0.037323501
-0.072193198 -0.0173475 0.0229971
0.0154549 -0.023130801 0.143387
0.0263441 0.0122055 0.146293
-0.0082021803 0.035999998 0.019393001
0.034646399 -0.0105 0.21510801
-0.071517803 -0.0079322103 0.00485799
0.027594 0.00295845 0.00037840099
-0.019917 -0.0195955 0.109321
-0.021968899 0.0233045 0.085500002
-0.00072433299 -0.0084191198 0.27200001
0.019104499 -0.0118666 0.25472301
0.0155172 -0.022296701 0.075700797
-0.019925 0.0103544 0.26003101
-0.0028587901 0.026610499 0.109574
-0.066000402 -0.0220313 0.00059662497
0.022972999 -0.0290902 0.191686
-0.031934101 -0.0128505 0.064458102
-0.0068510701 -0.026141601 0.121989
-0.058656801 -0.0368389 0.0252093
0.00895241 0.023000101 0.24181201
-0.043675199 -0.020115299 0
0.017498899 -0.0211384 0.073647603
-0.0026567499 -0.0264502 0.099634498
0.00094848202 -0.026913799 0.127735
0.0388491 -0.0031101401 0.21960101
-0.0484231 -0.0152306 0
0.0236523 0.015710499 0.22499999
-0.054144699 -0.029999999 0.036268
0.0105111 0.024191899 0
-0.025882199 0.0127011 0.112718
0.0189947 -0.0210687 0.17273299
0.0159695 0.022503899 0.055413298
-0.032947298 0.00068252598 0.0742938
-0.0344516 -0.00624558 0.18792699
-0.051589899 -0.0079260403 0
0.021817699 -0.0176604 0.073285803
0.0104376 0.0173009 0.266
-0.017875301 -0.00327258 0
0.0055612298 -0.035999998 0.0135797
0.0098288199 -0.029632 0.050240599
-0.044177402 -0.035999998 0.0156861
-0.070541501 0.024294199 0.0034972799
0.042902999 -0.0042243102 0.035641801
-0.0286742 -0.0063403901 0.15139
0.00790729 -0.0262802 0.153276
-0.026311301 0.029999999 0.035220701
0.0209071 0.0209582 0.18223999
-0.025926 0.0128626 0.14751799
-0.020746 -0.030962801 0.196273
-0.00397284 0.0267419 0.133251
0.0028456801 -0.0075370199 0.26432899
-0.023080399 0.0069631301 0.22979499
0.035999998 -0.00470863 0.045385402
0.034448098 -0.022962799 0.00373617
-0.033205301 -0.017039901 0.20269001
-0.0106692 -0.035999998 0.0080040405
-0.0358321 -0.029999999 0.031241801
0.00076262897 -0.0059206402 0.27200001
-0.0131343 -0.033051699 0
-0.0306044 0.029999999 0.0287933
0.0116698 0.034171999 0.205745
-0.0134899 -0.020641601 0.23528001
-0.028917899 -0.00502929 0.107509
-0.032952402 0.00165749 0.077245399
-0.032775301 -0.020294599 0
0.00113987 -0.00852188 0.26907
0.038368799 0.034345299 0.0106564
0.044 0.0073163798 0.0148046
0.033526398 0.0249708 0.0027862
-0.027706699 0.0089449501 0.097945899
-0.0059842402 0.037494 0.0065120598
-0.039101101 0.0242646 0.050000001
0.020100901 -0.027425 0.213706
-0.0075131999 0.0261916 0.137564
-0.0098015601 0.0302459 0.0275
-0.00220084 0.027391801 0.16973899
-0.0233732 0.016525701 0.138484
0.0259708 -0.0299426 0.042275801
0.0126287 0.0246957 0.163949
0.033654299 0.0215241 0.032368001
0.036273599 -0.0065362798 0.20658
0.0236564 -0.016016301 0.13103101
-0.0125867 -0.0289644 0.050760601
0.034084901 -0.0069181402 0.050448701
-0.026154799 -0.022533201 0.0597733
0.022292901 0.0029422599 0.246895
-0.0100245 -0.030417999 0
-0.025372701 0.013579 0.108986
-0.030863799 -0.0106662 0.088464797
0.019322099 -0.0105137 0.22580101
-0.00987243 0.025375901 0.126684
-0.010406 -0.031127401 0.21578901
-0.0111385 -0.019791599 0.074605502
-0.0224155 -0.0011212101 0.250532
-0.031332199 -0.0163309 0.062068999
0.0351253 0.019127199 0.0044384398
-0.017429199 -0.021643 0.11705
0.0114152 -0.0193689 0.26221201
0.034117699 -0.037999999 0.0084045799
-0.0356762 -0.030443599 0
0.0229927 0.032643199 0.0389097
-0.044061702 -0.037227798 0.00161392
-0.0135987 0.0205706 0.23777799
-0.0149219 -0.029143199 0
0.0360309 0.0037495 0.040051699
0.039412498 -0.02 0.015916999
0.021702901 0.0063290298 0
-0.032540999 -0.0085166804 0.086042702
0.0188713 0.0263645 0.217452
-0.0427301 -0.021932499 0.050000001
0.010597 0.0048505501 0
-0.039919902 0.029999999 0.041785799
-0.0481777 -0.037415601 0.00170781
0.0067273602 0.025459601 0.062077701
-0.032030702 0.0124819 0.069302
0.0208266 -0.019097401 0.144559
0.023557 -0.015805701 0.082512498
0.0162459 0.0143973 0.22542401
0.024573 -0.0105 0.22825301
-0.0153189 -0.00258073 0
-0.031163 0.017210901 0.073982701
-0.068216503 -0.0134779 0.0275905
-0.00310231 -0.027932299 0.179279
-0.00301629 0.0263818 0.0916522
-0.0044695502 0.027431199 0.052713498
-0.046965498 0.037999999 0.024951501
0.0034340399 0.035999998 0.0164543
0.031255599 0.0083656702 0.051815301
0.0133061 -0.036777701 0.198975
0.0048426902 0.026563101 0.125792
-0.047540501 -0.035999998 0.0156138
-0.0208453 -0.0083144102 0.247541
0.029469199 -0.00059440202 0.14731701
-0.0293903 -0.00226655 0.176477
-0.00075231103 0.034124602 0.212477
-0.0368024 -0.0301867 0.0489113
0.037487298 -0.0118316 0.037520401
-0.0208774 0.033216 0.0275
0.0242176 0.0149025 0.061286099
0.0057922001 0.0205075 0.266
0.0091875996 0.0071477699 0
0.028560599 -0.00670195 0.17629901
-0.020013699 0.030999999 0.0416472
-0.0171987 -0.0222023 0.160889
0.0111659 -0.0193983 0.240933
-0.0141178 -0.0238533 0.147246
0.020444401 -0.035999998 0.0097803501
-0.047078598 0.029999999 0.035032
-0.0094177499 0.0338655 0.209362
0.0048837401 0.0268621 0.150546
-0.0118738 -0.029999999 0.0300908
-0.00482025 0.032783698 0.18708301
0.035755701 -0.0090485299 0.19022
-0.0102298 -0.021603299 0.071649
-0.0086342404 -0.0255513 0.0869442
0.023664299 -0.0275403 0
0.0152178 0.0125282 0.244423
0.017886 -0.021588299 0.143438
-0.020792799 0.0187776 0.097224601
-0.0075886599 0.026366999 0.152804
0.00062083098 0.026611701 0.0994405
0.038906299 0.00184998 0.22280499
-0.0042253002 -0.030346399 0.049947899
-0.016873401 0.032142699 0.0275
-0.0178377 0.0218619 0.170773
0.0076382398 0.035999998 0.0090032397
0.027085301 -0.0104971 0.237717
-0.00322036 -0.01946 0
0.0434318 -0.0080367597 0.0312052
0.029472699 0.000974897 0.074352898
-0.028031301 0.0186044 0.215335
0.021420799 -0.0223043 0.18454801
-0.0107502 0.0197489 0.25566399
0.042785902 0.016648799 0.0063396501
-0.024895901 -0.0176723 0.221425
0.01732 -0.035868701 0.000934346
-0.0223305 -0.0022479501 0.26482901
-0.029395601 0.018910401 0.0874345
-0.00108969 0.0269695 0.13252801
-0.031313699 -0.016489901 0.082100399
-0.014601 0.018024599 0.071508303
0.0283147 0.0105 0.228292
0.024683001 0.0114263 0.22499999
-0.0145045 -0.0075702998 0.266
-0.030143799 0.030999999 0.041939799
0.0149719 0.022634599 0.075911798
-0.016324401 -0.0225359 0.137071
-0.070979603 -0.0279759 0.018493701
-0.0025956701 -0.029999999 0.032453101
-0.00167822 -0.029984999 0.221821
-0.0587859 -0.0224193 0
0.019733099 0.020225801 0.157423
-0.029302699 0.0028460401 0.14083201
-0.0279049 0.0250213 0.20014
-0.0144756 -0.032703798 0.0334718
0.0138582 0.023191201 0.073504902
0.032752801 0.0105 0.218358
0.0138627 0.0267301 0.220651
-0.0048513501 0.027252801 0.177277
-0.0206057 0.0192018 0.129972
0.023584301 0.0163994 0.0553836
-0.0327884 -0.0053244699 0.073017202
-0.0081541799 -0.035898902 0.19207001
0.0104484 -0.0303252 0
0.0068667098 0.0229665 0.219276
-0.0100253 -0.029999999 0.032754298
-0.01108 0.0247264 0.105408
0.0284284 0.0244275 0.199441
-0.024292201 -0.0155117 0.16034301
0.017550699 0.0116134 0.263724
-0.050905801 -0.037270602 0.0069588199
0.0201723 -0.035642698 0.00082136702
-0.0325731 0.0081460699 0.084603198
0.0126122 -0.0345264 0.191331
-0.0069784201 -0.0266119 0.164654
0.0360188 0.00662093 0.207609
-0.066148899 -0.036757499 0.0162051
-0.057390701 -0.0375617 0.020293299
-0.019227 -0.0239978 0.086623996
0.00055774202 -0.0271213 0.14396299
-0.043889198 0.028291 0
0.0104552 0.030999999 0.0438007
-0.046899401 0.00851712 0.0477117
-0.027421501 0.0121339 0.181803
-0.032689799 -0.00672699 0.059558399
0.029318999 0.0024905 0.13246299
-0.019665301 -0.0236222 0.061539602
-0.018768599 -0.0155769 0.242
0.0103352 0.0246509 0.079994097
-0.052867401 0.00315755 0.043145899
0.00100291 0.035999998 0.012237
-0.0385915 -0.018660801 0.050000001
0.00059120398 -0.0224359 0.26140699
-0.0254928 -0.0134267 0.125452
0.029081 0.0058168201 0.056235202
0.0110021 -0.025385199 0.15882701
-0.020037699 -0.0126039 0.22499999
-0.0107052 0.0197844 0.247785
-0.054864299 0.037592199 0.025582399
-0.028673699 0.00612908 0.13168
0.036463998 -0.0089598 0.202774
-0.0120944 0.024922401 0.158159
0.0230425 0.016416799 0.082410902
0.020609301 0.019164 0.13006
-0.0137627 -0.026386101 0.052722201
-0.0298042 0.017999999 0.070134699
0.013506 0.037947599 0.021895099
0.00162689 0.0269718 0.13208599
-0.032265499 -0.0083699496 0.21617
-0.031904101 0.0127049 0.21418101
-0.00185692 0.035999998 0.0145043
0.019204 -0.0116812 0.25804099
-0.032937299 -0.0030384001 0.0659758
-0.028914601 0.00518924 0.161483
0.017612301 -0.0219671 0.165739
0.0195792 0.0246621 0.219485
-0.0326235 -0.018930599 0.20086899
-0.029213101 -0.0035317999 0.155899
-0.023722799 -0.015792601 0.104166
0.0310426 -0.017912799 0.20897201
-0.000574145 0.015909599 0.266
-0.028600199 0.0214395 0.066164903
-0.023326401 -0.0164265 0.12997501
0.0148872 -0.037999999 0.023869701
-0.0209547 -0.032800298 0.0335683
-0.00183005 0.0272028 0.153393
0.0192628 0.020358101 0.055399399
-0.0282587 0.020819699 0.210742
-0.022882599 -0.028666699 0.189936
-0.027540101 0.037596699 0.025701599
-0.0090906201 0.026010299 0.161755
0.022239899 0.0033318801 0.25364
-0.018266801 -0.0148048 0.22499999
0.0294619 0.00129212 0.058076698
0.0294911 -0.000167062 0.169504
0.0283217 -0.0076268101 0.157833
-0.0092797596 -0.020410201 0.244451
-0.0020285801 0.0273447 0.16550501
-0.015449 -0.0230086 0.132465
-0.058520202 -0.0228105 0.0378782
-0.0290414 -0.0045395698 0.161006
-0.0073393201 0.029999999 0.0322196
-0.070892699 -0.027194399 0.021699701
0.0274141 -0.0099526104 0.155857
-0.0040645599 0.029999999 0.031615
0.0358519 0.022215201 0.0052036401
0.033652399 -0.036224701 0.0044933301
-0.016958 -0.0225839 0.091287397
-1.50135e-06 0.035091501 0.209306
-0.0103231 0.030242899 0.186303
-0.0616978 -0.0376065 0.0139266
-0.057958301 0.029999999 0.0288778
0.0237532 -0.0156682 0.0959749
-0.030116299 -0.030999999 0.043328099
-0.022133799 -0.0176962 0.121948
-0.015824899 -0.024502199 0.0561928
-0.032747999 -0.0103621 0.213999
-0.023930499 -0.0186904 0.18310501
-0.0293645 -0.0019781201 0.116497
-0.0224903 -0.018222701 0.17867
0.027967799 0.0214769 0.0501667
-0.0033796499 0.0101498 0.266
-0.017485199 0.0130257 0.233914
-0.025711499 -0.0131654 0.13724799
0.0256713 -0.0130192 0.096405096
-0.0027870799 0.026302701 0.083640702
0.038706999 0.0038733501 0.237939
0.0031175001 0.0267235 0.122064
-0.0200783 0.037972499 0.0055550002
-0.042847 0.0334698 0
-0.0560745 0.0312858 0.027139399
-0.0299382 -0.0143357 0.216259
-0.0182875 0.0130603 0.264891
0.0306801 0.035999998 0.0153208
0.0097260997 -0.025885601 0.16792101
-0.0051698801 -0.032659002 0.033427
-0.048865099 0.0176655 0
0.0385825 -0.0050181998 0.23604301
-0.025468601 0.0135545 0.12977099
0.00367851 -0.0094168298 0
0.022972301 -0.017069399 0.155922
-0.024659 0.00130804 0.24059699
0.0127926 -0.025417799 0.179445
0.017277399 -0.0065914602 0
-0.0080042304 0.025526 0.077478901
-0.0286629 -0.022404 0.205805
-0.0287451 -0.0056777201 0.095055804
-0.0137256 -0.034235202 0.191854
0.0319888 -0.0132081 0.213589
0.020893199 0.018869501 0.124259
-0.044082299 -0.033435799 0
-0.048380598 -0.0359121 0.0265439
0.0247104 -0.0149509 0.16231801
-0.0504549 -0.0175515 0.045083702
0.035999998 0.0083719697 0.043929402
0.0134158 -0.027314501 0
-0.068117604 0.022316299 0.00148953
-0.020755401 -0.0188064 0.095099702
-0.018053999 0.021757999 0.17439599
0.0173153 0.0094375797 0
-0.0110782 0.019085201 0
-0.0188489 0.0069476198 0
0.0291731 -0.00374847 0.067207597
-0.019939801 -0.019846 0.14331201
0.0122279 -0.0083923303 0
0.014512 -0.033276699 0.0398333
-0.023303701 -0.016290599 0.108737
0.0026897099 -0.016865199 0.266
-0.052012101 -0.0104986 0
-0.015307 -0.0101822 0
0.033847399 0.0149066 0.205121
0.038581599 0.0050412901 0.223353
-0.0126286 -0.023697101 0
0.017767999 0.021704201 0.147728
-0.025761399 -0.012893 0.22435699
-0.00075168302 -0.0300126 0.0275
0.0119972 0.0195807 0
-0.053628001 0.029999999 0.032820702
-0.0259893 -0.0128395 0.15295801
-0.047409698 -0.023205999 0
0.0091834599 -0.030999999 0.0414804
-0.0296156 0.029999999 0.034727901
-0.041105598 0.0140454 0
-0.054821901 -0.000930849 0
0.025487199 0.030131999 0.040083598
-0.025934 -0.0126618 0.11327
0.0258647 -0.022706 0.21288
-0.018213101 0.037873 0.021746101
0.022485901 -0.00020007 0.252657
-0.025963999 -0.0149523 0.222369
0.0286105 0.0286359 0.042149302
0.0115612 0.018616 0.235
0.0097303297 -0.029999999 0.0323168
-0.0077108298 -0.035422899 0.204523
-0.049572501 -0.034422301 0.000211148
-0.0094550001 -0.0203507 0.26332301
0.021864099 -0.0175662 0.066748403
0.0046348898 0.0137614 0.266
0.018931501 0.012 0.25022599
0.027396601 0.0105 0.231443
-0.063768201 0.0108115 0.00015276601
-0.038858801 -0.037999999 0.0230531
0.036262799 0.0102776 0.219221
-0.0065847798 -0.030954 0.218787
0.0118874 0.0359939 0.00099696196
-0.011489 -0.0246734 0.115132
-0.00482602 0.0260874 0.0853507
-0.0270092 -0.0192974 0.21605299
-0.0378609 0.035999998 0.016000601
0.0309566 0.035999998 0.012682
0.036259901 -0.0066949502 0.240897
0.0073617599 0.037999999 0.0235005
0.023459099 0.0349571 0.00047855001
-0.020846199 0.0189586 0.12675799
0.01939 -0.00184383 0.26383799
0.0292626 -0.00297118 0.112137
0.0015003399 0.0123181 0.266
0.0210444 0.019174401 0.16688199
-0.0218453 -0.0228974 0
-0.0146637 -0.0180237 0.071160197
-0.058665801 -0.037366599 0.00848886
0.025585501 -0.0127076 0.224766
-0.024968401 0.0066297399 0.22499999
0.0112137 0.00134622 0
0.0300593 -0.0105 0.228856
0.0187234 0.0201887 0.064208403
0.015835101 -0.022768101 0.131194
-0.072988801 -0.020949099 0.0112903
0.0406943 -0.0155756 0.0060000001
0.014915 0.023066999 0.109478
-0.028132301 -0.018318299 0.082797803
-0.018844601 0.0206549 0.122453
0.0130726 0.00099422003 0.266
-0.028457999 -0.0070367502 0.139483
-0.030611901 0.0032647799 0.221029
-0.027903801 0.0087300995 0.147397
-0.032956399 -0.0024427101 0.083968602
-0.0226184 0.031626798 0
0.041657299 0.0093360599 0.024
-0.0122868 0.033320501 0.0343302
-0.047246601 -0.029999999 0.036859699
-0.0142192 0.035999998 0.0148317
-0.0099388501 0.00035303601 0
-0.024813199 0.0145907 0.14093199
0.031683099 -0.019560801 0.203343
0.029710401 -0.0031183001 0.055721499
0.033792999 0.016611399 0.201533
0.0354934 0.0168743 0.035249401
0.033387799 -0.037999999 0.0129958
-0.037159499 0.0012656 0.20442399
0.00191927 0.021982601 0.235
-0.0416473 0.022840301 0.050000001
0.041517001 -0.0045958101 0.037866902
0.028563101 -0.0064198999 0.0760791
0.033796601 0.016807601 0.194132
0.0108817 0.019548099 0.239356
-0.027176799 0.018261099 0.0698523
0.0346894 0.0133262 0.049823299
0.0149364 0.0234317 0.144105
0.020647701 0.031052001 0.197953
-0.0144706 0.0257295 0.182625
-0.0326632 0.0061081499 0.087162301
0.0095600197 0.035200801 0.189658
-0.0111411 0.019531 0.25883099
-0.026944499 0.0110813 0.159793
0.0150315 0.023610899 0.167851
0.033264499 -0.00478885 0.186801
-0.0149682 -0.0219607 0.22499999
0.0228478 -0.029505599 0.19450399
-0.0108968 0.023873899 0.20604201
-0.032909501 0.0031747599 0.065522604
-0.032868199 0.0045304899 0.058754101
-0.0072826301 0.0266838 0.172607
0.0217169 0.018169999 0.12718201
-0.00862878 0.026223799 0
0.0113752 0.0193961 0.26337999
-0.0036066901 0.037268501 0.020537
0.0153665 -0.023303799 0.155148
-0.0100863 -0.035999998 0.0111452
-0.060552001 0.0275521 0.033821002
0.0089202197 0.037956301 0.199728
-0.018271601 0.025256701 0.18478499
-0.0140308 0.0342994 0.195337
-0.024679899 -0.030999999 0.047220498
0.0157336 0.022407699 0.092580102
-0.037595801 -0.021182301 0
-0.059834301 0.035999998 0.011936
-0.000387579 -0.0371117 0.0072766002
0.0275642 0.0095383096 0.149812
-0.0255327 0.025261801 0.18875501
-0.046883602 0.00581453 0
0.0070280801 0.0343192 0.20973501
0.0035099201 -0.0267065 0.123371
-0.039583299 -0.029999999 0.030603901
-0.0056381999 -0.0261443 0.101807
-0.0274252 -0.016878 0.21825799
-0.019109 0.026980201 0.051537599
-0.0154569 -0.033500001 0.035799999
-0.0293053 -0.0029508399 0.16685601
0.0035691201 0.0328869 0.033654898
0.0121298 0.020663001 0.221139
0.0128282 0.0244992 0.15331
-0.032919802 0.0027688399 0.068263397
-0.0042039002 0.00675285 0.271061
-0.00709562 -0.032387801 0
-0.033179499 -0.030648399 0.0483195
-0.071232803 0.023615999 0.023939
0.0136705 -0.017821901 0.25228399
0.0185844 -0.032050699 0.200642
0.033390202 0.0145721 0.20766
-0.033110101 0.0343033 0.000151637
0.0082736798 0.0252246 0.077251203
-0.0249226 -0.029999999 0.0278349
0.035142198 -0.00149146 0.050269298
0.034184799 -0.0134177 0.20662799
-0.00190329 0.027896499 0
-0.072287902 0.0248603 0.0077978298
-0.025720401 0.0227635 0.0576295
-0.049908798 -0.037999999 0.0038451301
0.00321752 0.0362138 0.189501
0.0187055 0.0065994998 0.2615
0.0021242199 0.030999999 0.0465381
0.0071466598 0.021271599 0.26208001
-0.0290903 0.00438252 0.143347
-0.047678102 0.029999999 0.0313062
-0.029242299 0.00326322 0.168786
0.030234 0.0123512 0.00104076
-0.0181903 -0.0132054 0.25781301
0.0055557699 0.035999998 0.019242501
-0.0118443 -0.0217166 0.23791499
-0.013107 0.0021778599 0.266
-0.026830999 -0.0113134 0.16545901
-0.0518663 0.0153054 0
-0.0294182 0.0010077599 0.15395901
-0.053178001 0.0184591 0
-0.045221001 -0.0184903 0.0489319
-0.033107899 -0.0023702099 0
0.033550099 0.0123268 0.210144
-0.0065426198 -0.0255896 0.065380998
-0.070829399 -0.0098861996 0.025375601
-0.0177471 -0.021275399 0.101115
-0.0041996199 -0.0336437 0.0275
0.018373899 0.020610901 0.080513403
-0.032164101 -0.023430901 0
-0.039576501 0.016228899 0.050000001
-0.064710803 0.00093444099 0.028472999
-0.0116627 -0.0245694 0.112124
-0.056566801 0.0072233998 0
-0.0330786 0.0147349 0.0535805
-0.0251352 0.0228543 0.064126298
-0.0011586 -0.027223799 0.149194
0.0045149 0.022005901 0.24878301
-0.028967099 0.0048954599 0.107266
0.0034505101 0.027124999 0.15923101
-0.032782 -0.0059401202 0.085190497
0.0285904 0.0063286801 0.079746097
0.0047131702 0.026160801 0.092076898
-0.0198818 -0.0170193 0
-0.0033525601 0.0072443699 0.26629701
0.0081556197 -0.0352467 0.204961
0.032627098 0.035220198 0.00296737
0.0389052 -0.00019051701 0.234808
